# .PCD v0.7 - Point Cloud Data file format
VERSION 0.7
FIELDS x y z
SIZE 4 4 4
TYPE F F F
COUNT 1 1 1
WIDTH 1406
HEIGHT 1
VIEWPOINT 0 0 0 1 0 0 0
POINTS 1406
DATA ascii
-1.7530832 3.5480938 -0.014637889
-1.6442536 3.5526905 -0.016383208
-1.5455333 3.556128 -0.016726259
-1.4560175 3.5541391 -0.016433898
-1.3536181 3.5560348 -0.016104093
-1.2464156 3.5487359 -0.016965656
-1.150263 3.5476558 -0.015751522
-1.0520356 3.5498016 -0.013794522
-0.94598347 3.5625052 -0.01396112
-0.84373701 3.5481906 -0.016057121
-0.74345356 3.5499554 -0.012544425
-0.66211605 3.5562515 -0.016016383
-0.56154436 3.5218871 -0.006191019
-0.46423614 3.5443368 -0.013459245
-0.35622707 3.5634718 -0.0091639161
-0.25235569 3.5339179 -0.010837899
-0.16504171 3.5512481 -0.0090112351
-0.034806639 3.5575135 -0.0087905852
0.061127651 3.5505598 -0.014222695
0.15064272 3.5522051 -0.0088915881
0.24814871 3.5449648 -0.0085972166
0.35039324 3.5335448 -0.0077780769
0.45072639 3.5326953 -0.009115262
0.53062314 3.5324805 -0.0084820166
0.66738689 3.5620179 -0.0071471157
0.72964501 3.5338442 -0.014407957
0.82720011 3.5548589 -0.01357734
0.93415886 3.5323439 -0.017712055
1.045665 3.5622544 -0.0097534191
1.1408606 3.5539012 -0.012133559
1.2652447 3.5585506 -0.0082813501
1.3470447 3.5417116 -0.012710474
1.46157 3.5506856 -0.01055264
1.5342448 3.5519304 -0.0057440279
1.6797894 3.539938 -0.0040022284
1.7414284 3.5262616 -0.011218105
1.8347346 3.5722499 -0.004398223
1.9763775 3.5451159 -0.020620244
2.037818 3.5507658 -0.023417402
2.1072009 3.5297706 -0.01770946
2.7859592 3.5185885 -0.0072056577
2.8798428 3.5488534 -0.01070805
2.9709752 3.5414972 -0.044847488
3.034338 3.5556672 -0.077912532
3.1615973 3.5589111 -0.073058069
3.201045 3.5464215 -0.085685134
-6.6254764 3.6138482 -0.047539592
-6.5427632 3.6213102 -0.04865336
-6.4549804 3.6213558 -0.052990802
-6.3526001 3.6224282 -0.04789139
-6.0428548 3.6301744 -0.038670469
-5.9329796 3.6355028 -0.037202992
-5.8552899 3.6523266 -0.045428317
-5.7492905 3.6484699 -0.022610739
-5.6558442 3.654675 -0.012992677
-5.5525374 3.6432905 -0.014650389
-5.4484239 3.6428921 -0.017679021
-5.3484879 3.642884 -0.017676612
-5.244884 3.6547513 -0.021565488
-5.1214714 3.6439986 -0.0061920248
-5.0501294 3.6525052 -0.009591178
-4.9628506 3.6663709 -0.00800109
-4.8369031 3.6709895 -0.0095012765
-4.7465906 3.636672 -0.01010316
-4.6511812 3.6430743 -0.012678974
-4.5575247 3.6589644 -0.011122582
-4.4396362 3.6496887 -0.013375927
-4.3565831 3.6504631 -0.015628995
-4.2456551 3.6459656 -0.014910257
-4.1519332 3.6369779 -0.018315636
-4.0484662 3.6441915 -0.014089402
-3.9563096 3.6481481 -0.012871661
-3.8494577 3.6467571 -0.020033941
-3.7566617 3.6504607 -0.017916797
-3.647222 3.6307111 -0.019934917
-3.5572383 3.6457241 -0.019717472
-3.4512525 3.6495302 -0.014219749
-3.3428116 3.6593339 -0.014689633
-3.2593825 3.653744 -0.0162156
-3.1466298 3.6547778 -0.016170938
-3.0435407 3.6521895 -0.0085926345
-2.94525 3.6357179 -0.013452821
-2.8534117 3.6389835 -0.014074882
-2.756429 3.6538942 -0.015312275
-2.6529806 3.6376815 -0.016390068
-2.5476308 3.6494708 -0.017320335
-2.4499419 3.644747 -0.0146882
-2.3410237 3.6471994 -0.01530582
-2.2539728 3.6539087 -0.014320081
-2.1506114 3.6507442 -0.015448118
-2.0493309 3.6479144 -0.018790282
-1.952831 3.6429291 -0.017056899
-1.8505809 3.6403279 -0.015861031
-1.7508637 3.646404 -0.014509132
-1.6514987 3.6485021 -0.017018609
-1.5554675 3.6497624 -0.01851563
-1.4413319 3.6486793 -0.01393417
-1.3489234 3.6463289 -0.017753663
-1.2533513 3.6496298 -0.017510073
-1.1541783 3.643322 -0.019337025
-1.0467498 3.6446595 -0.017483471
-0.94294322 3.6541946 -0.013652417
-0.84539074 3.6473906 -0.015348286
-0.74527293 3.641247 -0.016808391
-0.67176098 3.6332309 -0.017957518
-0.5635035 3.6371777 -0.018820591
-0.43960553 3.6571732 -0.010511785
-0.35318226 3.6508248 -0.0094215376
-0.2504918 3.6595855 -0.013408808
-0.13938536 3.6633279 -0.0091506401
-0.062577292 3.6633246 -0.008687594
0.046992589 3.6377594 -0.0099154804
0.14821757 3.6367197 -0.0045135915
0.24722448 3.6685188 -0.0043886486
0.33276421 3.645956 -0.0097097829
0.44487756 3.6478627 -0.0084867878
0.55638152 3.6454253 -0.013721228
0.65305859 3.6548057 -0.0089227092
0.77652252 3.6252663 -0.013502637
0.82725859 3.6812105 -0.00978895
0.94778317 3.6355398 -0.014589313
1.062633 3.6635056 -0.016028941
1.1370579 3.6172848 -0.0076369108
1.2284609 3.6530294 -0.01135131
1.3455602 3.6514215 -0.0030515492
1.445798 3.633095 -0.0087041706
1.6693708 3.6412976 -0.0074665868
1.7586237 3.648978 -0.0052007474
1.8600489 3.6411638 -0.0071914843
1.9869276 3.6469808 -0.018376276
2.0348132 3.6495025 -0.021996409
2.1125906 3.6703818 -0.0077512339
2.8476524 3.6520855 -0.012951611
2.9583194 3.6465788 -0.036510527
3.0419812 3.654331 -0.067349859
3.1205993 3.6280982 -0.077810816
-6.0093617 3.775893 -0.054828536
-5.9323502 3.7586741 -0.034459859
-5.8519325 3.7501264 -0.049013939
-5.7378011 3.7421446 -0.021856437
-5.6588235 3.7423394 -0.015146338
-5.5540171 3.7435324 -0.017028999
-5.4666829 3.7452385 -0.017688176
-5.3401337 3.7335382 -0.017931925
-5.2443027 3.7494011 -0.016794458
-5.1444631 3.7643135 -0.009995413
-5.0367374 3.7690229 -0.0070491093
-4.9475656 3.7256613 -0.0053303922
-4.842567 3.7540858 -0.0091089075
-4.7514982 3.7697093 -0.017411971
-4.6583152 3.7675781 -0.0096114771
-4.5495949 3.7505217 -0.012434721
-4.4474936 3.7457204 -0.013771355
-4.3620491 3.754024 -0.014693315
-4.2452726 3.7555838 -0.02214634
-4.1433783 3.7538121 -0.019000335
-4.0470972 3.747719 -0.017615825
-3.950166 3.7403865 -0.016418681
-3.8406193 3.7393534 -0.019971283
-3.7521076 3.7464724 -0.013901408
-3.6484549 3.7397385 -0.01347639
-3.5517399 3.7407184 -0.017371237
-3.4505968 3.7397814 -0.019188384
-3.3414714 3.7438514 -0.018545618
-3.2551448 3.7350922 -0.010530787
-3.1513746 3.7384615 -0.010472984
-3.0462039 3.7494349 -0.017205436
-2.9478409 3.7313683 -0.010919919
-2.8557277 3.7302742 -0.017994592
-2.7494106 3.7499597 -0.01355893
-2.6521232 3.7441866 -0.017843543
-2.5439363 3.746659 -0.017687572
-2.4545357 3.7558498 -0.017668333
-2.3442948 3.7488992 -0.017260609
-2.2499788 3.7515433 -0.013730141
-2.1539397 3.7536359 -0.016281154
-2.0502443 3.7554393 -0.012384313
-1.960359 3.7607837 -0.012816093
-1.8330491 3.7660282 -0.014124177
-1.7445228 3.7458885 -0.014193292
-1.6447388 3.7409344 -0.018705329
-1.5541577 3.7338998 -0.019021275
-1.4365267 3.7404287 -0.015656481
-1.3592398 3.7577744 -0.014436021
-1.2447525 3.7565968 -0.014011969
-1.1554819 3.7501531 -0.018325351
-1.0498641 3.746727 -0.015323587
-0.95143557 3.7508411 -0.019757781
-0.8453474 3.7517154 -0.014479901
-0.75922871 3.7534103 -0.015590913
-0.65432566 3.7477508 -0.013333006
-0.55336076 3.7603638 -0.013678443
-0.44185466 3.7274952 -0.019098574
-0.33939075 3.7447665 -0.010336583
-0.24834374 3.7509067 -0.010545663
-0.14260745 3.7471752 -0.0062268386
-0.061259728 3.7481701 -0.010752167
0.044908941 3.7498457 -0.011122688
0.15410042 3.7417064 -0.0061508687
0.25291201 3.7385297 -0.0069593424
0.36789998 3.738621 -0.0064168219
0.43899092 3.7403913 -0.0058794348
0.5382033 3.7719278 -0.0051395297
0.68986809 3.7357197 -0.0083768964
0.75618076 3.7273426 -0.01271674
0.82936674 3.7301145 -0.0096810693
0.97536945 3.7361853 -0.0089339027
1.0014734 3.7449274 -0.010096721
1.146278 3.7235422 -0.0060469657
1.241767 3.7490296 -0.01025227
1.3540573 3.758636 -0.0068558943
1.4336016 3.7379024 -0.007238633
1.5515499 3.7198501 -0.0083201509
1.6468688 3.7537215 -0.010579754
1.7518858 3.7505162 -0.0079112109
1.8666364 3.7459259 -0.0094836047
1.9740247 3.7653053 -0.021440063
2.0462999 3.7540443 -0.037966531
2.1173499 3.7587829 -0.047003724
2.8983655 3.7927303 -0.022192506
2.9631641 3.7553029 -0.045410033
3.027889 3.7497661 -0.065613694
3.1151857 3.7757616 -0.083194584
-6.0107136 3.888031 -0.066619806
-5.9359131 3.8442948 -0.030561078
-5.8530374 3.8504467 -0.045204803
-5.7451892 3.8556845 -0.023921542
-5.6655593 3.8553696 -0.015086855
-5.5384002 3.8516028 -0.014979549
-5.4536848 3.8495095 -0.01566809
-5.3620262 3.8361065 -0.020960178
-5.2361608 3.8224194 -0.0059744972
-5.1433892 3.8473685 -0.0059688929
-5.0422821 3.8444614 -0.0066823722
-4.9711413 3.8617971 -0.007202026
-4.8499799 3.8707783 -0.0061888802
-4.7489729 3.8443022 -0.0039217905
-4.6537061 3.8564613 -0.0074642878
-4.5444164 3.8539684 -0.012374611
-4.4503102 3.8478119 -0.010580176
-4.3556528 3.8539333 -0.019930391
-4.2589097 3.8493891 -0.014081722
-4.1425071 3.8454127 -0.015522915
-4.0486484 3.8595545 -0.017935729
-3.9449255 3.8508191 -0.023247551
-3.8584499 3.8501265 -0.015525666
-3.7555795 3.85868 -0.022561477
-3.6504898 3.8670421 -0.014600249
-3.5612504 3.8582869 -0.016564719
-3.457561 3.8510728 -0.010587009
-3.3402989 3.8483858 -0.01413753
-3.2452977 3.8362303 -0.015347697
-3.1478035 3.8524678 -0.011370539
-3.0553894 3.8265305 -0.014558089
-2.9536457 3.8424578 -0.016267711
-2.8367677 3.8535569 -0.013605538
-2.7423322 3.8567543 -0.013793553
-2.6560466 3.8547337 -0.012714732
-2.5402622 3.8429716 -0.01753634
-2.4569852 3.8552563 -0.016696479
-2.3539817 3.8419018 -0.013786904
-2.2509177 3.8467932 -0.013043024
-2.1483703 3.858932 -0.012079249
-2.0468788 3.8528526 -0.017069513
-1.9531722 3.8581517 -0.017118149
-1.8357922 3.8395617 -0.015958978
-1.7580634 3.8503268 -0.011727036
-1.6463271 3.84829 -0.016450077
-1.5483561 3.8488231 -0.012871589
-1.4536183 3.8530564 -0.016052164
-1.3590312 3.8447871 -0.012526486
-1.248866 3.8516357 -0.011897221
-1.1491047 3.8471296 -0.017692126
-1.0534586 3.8594501 -0.018766047
-0.94201231 3.8509164 -0.018577436
-0.84716487 3.8522346 -0.018903999
-0.75777835 3.846571 -0.015520623
-0.65216225 3.8499029 -0.015041484
-0.55682594 3.8449621 -0.0090257246
-0.44062907 3.8446815 -0.011971427
-0.34617385 3.8460453 -0.012075685
-0.26089638 3.8394585 -0.010729713
-0.1471701 3.8322382 -0.011212223
-0.046694357 3.8498836 -0.010399443
0.043319635 3.8424668 -0.0071841246
0.13874762 3.8543386 -0.0075995768
0.24008304 3.8644142 -0.0080214916
0.38962221 3.8472459 -0.003562073
0.46116322 3.8219557 -0.0060776435
0.53658146 3.8205655 -0.0042696297
0.65157014 3.8355968 -0.006728319
0.75713909 3.8496356 -0.0097017288
0.86246151 3.8353875 -0.013159551
0.96556681 3.8492944 -0.0081074508
1.0264777 3.8762178 -0.015261337
1.1375769 3.8634143 -0.0059885792
1.2470779 3.8493774 -0.0050361864
1.353197 3.8499308 -0.011769313
1.4285321 3.8546364 -0.0067054583
1.5618323 3.872299 -0.004862234
1.6024468 3.8967547 -0.011018977
1.7372639 3.8280401 -0.0031434037
1.8514804 3.8532438 -0.0036597233
1.9791926 3.8424797 -0.023337068
2.0405886 3.8364587 -0.038247082
2.126956 3.8468454 -0.034825277
2.8698733 3.8789299 -0.005536289
2.9445913 3.8515339 -0.030302476
3.0252032 3.8542807 -0.066141158
3.1747677 3.832166 -0.05695273
-5.9218435 3.9534135 -0.038362939
-5.8593078 3.9538777 -0.046800628
-5.7363567 3.9463022 -0.019380482
-5.6547556 3.9504285 -0.014587934
-5.5414944 3.9558315 -0.013659026
-5.4472213 3.9490607 -0.013452786
-5.3525438 3.9245679 -0.024757251
-5.2238889 3.9295969 -0.0075133145
-5.1418262 3.9389489 -0.0061633852
-5.0369496 3.9577115 -0.0043745195
-4.9566674 3.9554462 -0.010666357
-4.8466802 3.962929 -0.0069188098
-4.7558036 3.9641685 -0.0062006223
-4.6518269 3.9409237 -0.015427665
-4.5568495 3.9454775 -0.0083120186
-4.4485297 3.9466188 -0.012539158
-4.3549848 3.9482973 -0.012941168
-4.2647271 3.9551399 -0.020691657
-4.150208 3.9379861 -0.01956092
-4.0508351 3.9299009 -0.01240684
-3.951961 3.9436417 -0.024118891
-3.8491535 3.954195 -0.02687726
-3.7469778 3.9577837 -0.028509161
-3.6457796 3.9446476 -0.014003205
-3.5521896 3.9314902 -0.028944489
-3.4308443 3.9539809 -0.020805068
-3.3397646 3.9478462 -0.016938025
-3.2436116 3.9547091 -0.015206507
-3.1523564 3.9491374 -0.012009385
-3.0508342 3.9544933 -0.014675652
-2.9545915 3.9388151 -0.01436261
-2.8470027 3.9455957 -0.012037868
-2.7355983 3.9349098 -0.0099971164
-2.6518178 3.9459856 -0.017546134
-2.5487807 3.9612136 -0.018334361
-2.4559667 3.9551544 -0.018326266
-2.3466372 3.9520609 -0.01765075
-2.2479522 3.9571011 -0.01505852
-2.1388111 3.9506633 -0.017347198
-2.0544996 3.9498377 -0.018132733
-1.9665524 3.9502933 -0.014432882
-1.8407605 3.9452171 -0.015260602
-1.7581505 3.9466693 -0.012986626
-1.6397605 3.94555 -0.012970287
-1.5516993 3.9589758 -0.02071986
-1.4520576 3.9419372 -0.017190658
-1.3548717 3.9493968 -0.012979321
-1.2471182 3.9420741 -0.013328924
-1.1511273 3.9595323 -0.015988259
-1.0464903 3.9466319 -0.016489632
-0.95376849 3.9500747 -0.014786995
-0.85522944 3.9402347 -0.016684124
-0.74700963 3.9377391 -0.013457214
-0.65523207 3.9486029 -0.013567369
-0.53930181 3.9568534 -0.010390299
-0.45331356 3.9570444 -0.0092230598
-0.36662593 3.9597738 -0.0074461126
-0.25182959 3.964911 -0.0093001779
-0.17422587 3.9593189 -0.0073864497
-0.060222786 3.9402378 -0.007865347
0.041369997 3.9640172 -0.0097269723
0.15268722 3.9312754 -0.0086912951
0.2491955 3.9368932 -0.0067637125
0.33492064 3.9717674 -0.0066016614
0.42744946 3.9514771 -0.0088319369
0.56329125 3.9623928 -0.0070729903
0.6494953 3.9491458 -0.0045683347
0.73138666 3.9060612 -0.0054629892
0.96290827 3.9603603 -0.0086916965
1.0561736 3.9626372 -0.00080521405
1.138319 3.9299817 -0.0039694235
1.2693398 3.9122567 -0.0038387389
1.3113782 3.9684863 -0.0060839653
1.4667512 3.9489443 -0.0067539238
1.5638791 3.9176869 -0.002662824
1.6576992 3.9305789 -0.0068067485
1.7500434 3.9451413 -0.0049134102
1.8589592 3.9820135 -0.0028917815
1.9809452 3.9577303 -0.030585958
2.0464132 3.9552007 -0.041821081
2.135628 3.9552941 -0.053449113
2.2628996 3.9881325 -0.070730314
2.3731065 3.9794159 -0.078430556
2.4414935 3.985208 -0.080491394
2.5901022 3.9892521 -0.081039988
2.6509397 3.9895208 -0.088864893
2.7443507 3.9651978 -0.060633942
2.8590567 3.9693415 -0.042800575
2.9700198 3.951586 -0.04823903
3.0232019 3.951169 -0.076401606
3.1312201 3.9670854 -0.042870879
-6.0126023 4.0524445 -0.041996341
-5.935184 4.0535955 -0.035562165
-5.8618016 4.0534754 -0.054266479
-5.7522831 4.041677 -0.020208135
-5.6413937 4.0538087 -0.012535305
-5.5594602 4.0450573 -0.015497699
-5.4506063 4.0314984 -0.013497727
-5.3853369 4.02811 -0.017957637
-5.2247491 4.0570674 -0.0078932596
-5.1380782 4.047627 -0.005539088
-5.0544634 4.0547986 -0.0076957862
-4.9467568 4.0370388 -0.0064462074
-4.855104 4.0346165 -0.0078556901
-4.7348394 4.0549245 -0.010956722
-4.6521921 4.0517969 -0.009905817
-4.5521994 4.047318 -0.014380008
-4.4514203 4.0268617 -0.0096907653
-4.3382883 4.0303245 -0.0091273235
-4.2477026 4.0547681 -0.010072461
-4.1312571 4.0178666 -0.005762727
-4.0545211 4.0462732 -0.015572737
-3.9566298 4.0498099 -0.014644443
-3.8307385 4.0162821 -0.019561211
-3.7276678 4.0205593 -0.010762254
-3.6388304 4.0497141 -0.013639277
-3.553546 4.0232563 -0.011157614
-3.429492 4.0410838 -0.018552551
-3.3390834 4.0515347 -0.010198617
-3.2500329 4.0475864 -0.014159603
-3.1500649 4.0493755 -0.017308271
-3.0606582 4.0349808 -0.015251298
-2.9511845 4.0383968 -0.0098030418
-2.8439701 4.0530901 -0.01408475
-2.7467289 4.0426478 -0.015115806
-2.6521258 4.0487289 -0.01234721
-2.5546522 4.0440044 -0.015071382
-2.4510865 4.0564494 -0.015469201
-2.3414998 4.0446382 -0.015886845
-2.2458494 4.0539875 -0.015805028
-2.1369116 4.0444994 -0.015366264
-2.0528173 4.0527816 -0.015580648
-1.9526739 4.0536456 -0.010561042
-1.8366854 4.0520253 -0.01731693
-1.7567061 4.0386071 -0.011673099
-1.6329517 4.0511007 -0.0097631337
-1.5428902 4.0420289 -0.01592462
-1.4509308 4.0580168 -0.014947861
-1.3535728 4.0531573 -0.011604329
-1.2527097 4.0490613 -0.014160785
-1.1501988 4.0513492 -0.017958697
-1.0578672 4.0480771 -0.013192683
-0.96108139 4.0519123 -0.010490338
-0.84567547 4.0503368 -0.014562149
-0.74167937 4.0549998 -0.0092342673
-0.6460067 4.052557 -0.012654952
-0.55557388 4.0573792 -0.012293747
-0.46220049 4.037323 -0.015358359
-0.35248536 4.0512137 -0.009915798
-0.2783457 4.0784664 -0.0055253431
-0.17352092 4.0135145 -0.0018182695
-0.00050532818 4.0449305 -0.0019745678
0.062158208 4.0333142 -0.0049474798
0.14663771 4.0510354 -0.0063789836
0.23862584 4.0507565 -0.0034813483
0.48723859 4.0668993 -0.012177348
0.5370338 4.0664811 -0.007220611
0.69894195 4.0241942 -0.0059339255
0.71484005 4.08354 -5.1558018e-06
0.84986347 4.0439191 -0.0029562663
0.98684317 4.0221715 -0.0067388564
1.0041218 4.0145035 -0.016687639
1.1448942 4.0672441 -0.0046784482
1.37533 4.0328732 -0.0012649968
1.4472418 4.0217466 -0.0041944436
1.5537807 4.0633664 -0.0073588542
1.601081 4.0397077 -0.0012068897
1.7833446 4.0156755 -0.006907417
1.842761 4.0055075 -0.0023280419
1.9795461 4.0561891 -0.030097632
2.043591 4.0434279 -0.040822845
2.1361425 4.0573778 -0.04018556
2.2616587 4.0638556 -0.083260767
2.3507104 4.0390301 -0.084591061
2.4477737 4.0405431 -0.084933423
2.5447485 4.0295773 -0.086200885
2.6469922 4.0125179 -0.073709175
2.7614636 4.0436873 -0.086895257
2.8752272 4.040051 -0.068381377
2.9568324 4.0194807 -0.043615866
3.0105407 4.0307226 -0.063855439
3.1419036 4.0580368 -0.059662797
-6.0257344 4.1699538 -0.073868982
-5.9217343 4.1496911 -0.046885844
-5.8529458 4.1423001 -0.043375175
-5.7557821 4.1443548 -0.01669004
-5.6520185 4.1492863 -0.011308411
-5.5624504 4.1552887 -0.021491796
-5.4735422 4.1524787 -0.024532873
-5.343544 4.1637988 -0.0062098354
-5.2437067 4.1226788 -0.0049256235
-5.1345625 4.1362133 -0.0076939194
-5.0497618 4.1289144 -0.0081500597
-4.9330091 4.1464887 -0.010038392
-4.8417177 4.1560378 -0.0065637496
-4.7349606 4.1609664 -0.0070875287
-4.6462064 4.1303067 -0.010578021
-4.5865703 4.1649804 -0.00446183
-4.4487529 4.147038 -0.013316856
-4.3700771 4.1315441 -0.016971078
-4.2318354 4.1517134 -0.011824036
-4.1339087 4.1429152 -0.0081373323
-4.0330729 4.1339149 -0.018914491
-3.958425 4.1639061 -0.017208995
-3.8425403 4.1384616 -0.019099155
-3.750237 4.1463437 -0.020955423
-3.6483209 4.1473603 -0.01480209
-3.5505028 4.1608472 -0.01668288
-3.4504499 4.1603627 -0.0098043634
-3.344506 4.1392646 -0.014388382
-3.247087 4.1571612 -0.01500743
-3.1549635 4.1424751 -0.014486137
-3.0599024 4.1439791 -0.014683652
-2.9461949 4.1433387 -0.01303003
-2.8450868 4.153935 -0.012872135
-2.7585423 4.1618595 -0.012416724
-2.6364014 4.1630931 -0.0097288266
-2.5393975 4.1475711 -0.013101089
-2.4594867 4.1509647 -0.015572008
-2.3436081 4.1475205 -0.010835852
-2.2482076 4.1498637 -0.014132941
-2.1485007 4.1475511 -0.010703002
-2.0526876 4.1567478 -0.012792364
-1.9536198 4.1461596 -0.013791917
-1.8675395 4.1598325 -0.027904436
-1.7617841 4.1522675 -0.014364191
-1.6532047 4.1454935 -0.016344851
-1.5429507 4.138876 -0.01527448
-1.4513227 4.1614604 -0.012066319
-1.343114 4.1547499 -0.013481788
-1.2632413 4.1638594 -0.012271904
-1.1396654 4.146162 -0.015551529
-1.0519488 4.146853 -0.018708372
-0.9564448 4.172595 -0.012213848
-0.83689475 4.1307135 -0.0084085604
-0.75884473 4.1388102 -0.010627846
-0.64354938 4.1268549 -0.010477953
-0.54261488 4.1487899 -0.008527346
-0.47742 4.1411428 -0.017772546
-0.35498065 4.1090779 -0.0096439961
-0.23921284 4.1376014 -0.0097847581
-0.11753836 4.1215825 -0.0099356808
0.02225405 4.1499848 -0.0033515927
0.13482949 4.1915493 -0.001707837
0.2286959 4.1593404 -0.0048107528
0.48274225 4.1235156 -0.0023728013
0.6270774 4.1642261 -0.0029521137
0.8848787 4.1787167 -0.0068089664
0.96936548 4.1845126 -0.0098817423
1.0275011 4.1266065 -0.0053122938
1.2215326 4.1642871 -0.0041615963
1.3601251 4.1587687 -0.0088262903
1.459734 4.1434612 -0.0058421977
1.5097806 4.1789298 -0.0049313246
1.6322746 4.151844 -0.0061188936
1.7598352 4.1343021 -0.0050179781
1.9836899 4.14819 -0.024919758
2.0362399 4.1382084 -0.037400287
2.1371717 4.1166248 -0.036378562
2.2722943 4.1173739 -0.075041406
2.344893 4.1622601 -0.083204195
2.441709 4.1702404 -0.093189873
2.5217829 4.1362219 -0.096036151
2.8858759 4.1421285 -0.016394908
2.964565 4.1653938 -0.017961558
3.0363851 4.1568804 -0.050834436
3.1677475 4.1018147 -0.064933583
-5.9233966 4.2458582 -0.039717004
-5.8565736 4.2529278 -0.045673851
-5.7526035 4.2419238 -0.016705478
-5.6740599 4.2491612 -0.023292325
-5.5717602 4.2627354 -0.019969992
-5.4596024 4.2776513 -0.023215486
-5.3600769 4.2654324 -0.011336595
-5.2501149 4.2470016 -0.010714029
-5.1549873 4.2757654 -0.0015773401
-5.044003 4.2233486 -0.0026730862
-4.9805403 4.2508044 -0.004707966
-4.8705335 4.242837 -0.0049760216
-4.7401605 4.2477441 -0.0073196208
-4.6490054 4.2586918 -0.011690203
-4.5525584 4.2490587 -0.0083106793
-4.4428577 4.255959 -0.0087728528
-4.357708 4.2521253 -0.012283645
-4.2544127 4.2437491 -0.0092260605
-4.1378303 4.2729039 -0.01116271
-4.0495019 4.238133 -0.017238282
-3.9605887 4.2381568 -0.027331928
-3.8576703 4.2746134 -0.017014135
-3.7383182 4.2688065 -0.020825882
-3.6433964 4.2659702 -0.018345552
-3.5440803 4.2426929 -0.014858127
-3.4515669 4.2477446 -0.011054867
-3.3547168 4.248291 -0.0095095765
-3.2494645 4.2626228 -0.014960351
-3.1403027 4.2509551 -0.010094889
-3.0568514 4.2594471 -0.016818134
-2.9584401 4.2572312 -0.021017903
-2.8378797 4.2593584 -0.011169743
-2.7568302 4.2429848 -0.013728727
-2.6531093 4.2649374 -0.013650957
-2.5434413 4.2432489 -0.011449469
-2.4419672 4.2540646 -0.01843714
-2.3432016 4.2430611 -0.014927787
-2.2563031 4.2632985 -0.016303467
-2.1466074 4.244072 -0.012781913
-2.0548768 4.2441893 -0.020233849
-1.9284366 4.2486134 -0.033505119
-1.8641645 4.2521734 -0.03331209
-1.757526 4.2505283 -0.018365636
-1.6571726 4.2435236 -0.013859692
-1.5716004 4.2355824 -0.014025596
-1.4398848 4.252811 -0.014355393
-1.3568052 4.2458096 -0.010865883
-1.2567791 4.2393966 -0.018217886
-1.1407727 4.2548118 -0.020592365
-1.0533972 4.266232 -0.043810885
-0.95991737 4.2574663 -0.024689468
-0.85327071 4.2289033 -0.009876919
-0.75205791 4.2319746 -0.0068900674
-0.63343912 4.2478704 -0.0077974861
-0.53753728 4.2541046 -0.0099660037
-0.44532853 4.2518139 -0.0085314382
-0.32887962 4.2576561 -0.0077849687
-0.21745974 4.2917438 -0.0097227842
-0.12415473 4.2613893 -0.010133564
-0.078851193 4.27461 -0.0045542046
0.053834759 4.2604194 -0.0035909235
0.14323092 4.2252908 -0.013617352
0.22762839 4.2569313 -0.0037390243
0.3620871 4.2397199 -0.0041807122
0.43117103 4.2645297 -0.0053589246
0.53907645 4.2555084 -0.001977969
0.66968268 4.2399392 -0.0072918981
0.75722921 4.2403507 -0.0086680166
0.89812279 4.2646446 -0.0070760101
0.94188678 4.2701087 -0.005503878
1.0795664 4.2144532 -0.0046151876
1.1347387 4.2508469 -0.0064749792
1.2600081 4.2358274 -0.0065280199
1.3354464 4.223175 -0.0059635714
1.4559003 4.2413249 -0.0055434383
1.5291559 4.2433023 -0.00032448769
1.6331241 4.2107511 -0.0014227182
1.9846723 4.2402143 -0.029986095
2.0303307 4.2477555 -0.028459296
2.1430845 4.2300525 -0.031830568
2.2732663 4.2243514 -0.094372511
2.5545657 4.2218232 -0.085467555
2.8735092 4.2576752 -0.027503133
2.9023237 4.2388859 -0.00018888712
3.0843413 4.2893295 -0.058750406
-6.0043774 4.3965592 -0.089474
-5.919601 4.350143 -0.045841113
-5.8575592 4.3500524 -0.042354718
-5.7662058 4.3639898 -0.018433264
-5.6430602 4.3477902 -0.010567867
-5.5669332 4.3406076 -0.032794684
-5.4513574 4.3410907 -0.028744683
-5.3262572 4.3694386 -0.0094643058
-5.2602062 4.3817739 -0.010901004
-5.1660047 4.3548374 -0.0097356103
-5.0293121 4.3470836 -0.00706755
-4.9114842 4.3386159 -0.0088960528
-4.8457255 4.3437514 -0.0059043984
-4.7501864 4.3293476 -0.0048107374
-4.6360412 4.3623252 -0.0053042779
-4.5594358 4.3492131 -0.008485496
-4.4475293 4.3570089 -0.0077626025
-4.3420143 4.3568468 -0.0092248777
-4.2734571 4.3735733 -0.013359032
-4.1482191 4.3527994 -0.0096412934
-4.052928 4.3672209 -0.013386599
-3.9371989 4.341702 -0.010150236
-3.8276601 4.3691621 -0.019457337
-3.7515285 4.3665781 -0.018959122
-3.6594837 4.3419061 -0.010916048
-3.5398483 4.3711152 -0.01418882
-3.4418938 4.3500381 -0.016749294
-3.368645 4.3558354 -0.016088305
-3.234514 4.3561864 -0.0099102771
-3.156281 4.3501234 -0.0062523014
-3.0519614 4.3447189 -0.0093092909
-2.950846 4.3493361 -0.01703145
-2.8373616 4.351048 -0.017094158
-2.760608 4.3557115 -0.011307331
-2.6505713 4.3603096 -0.015307497
-2.5410402 4.3481107 -0.01741014
-2.4642398 4.3529286 -0.009809969
-2.3624182 4.351665 -0.016431365
-2.2499707 4.3434105 -0.0098402202
-2.1689398 4.368515 -0.012548561
-2.0373797 4.3532429 -0.017340589
-1.9435761 4.337153 -0.016882414
-1.8661454 4.3328996 -0.014209524
-1.7384024 4.3385935 -0.011511826
-1.6406887 4.3440719 -0.011154511
-1.5501274 4.3505836 -0.012321406
-1.4315345 4.3384762 -0.01609803
-1.3450729 4.3238511 -0.011659744
-1.253746 4.3314748 -0.024123512
-1.1167661 4.3260269 -0.035017457
-1.054674 4.3314786 -0.042150341
-0.95623523 4.3506107 -0.013508024
-0.83183962 4.3600841 -0.0081473514
-0.74756908 4.3813195 -0.0068656472
-0.64729494 4.3777347 -0.0080177914
-0.54949319 4.3536072 -0.0093222335
-0.46774453 4.3574953 -0.0078303525
-0.35715625 4.3612332 -0.0098724617
-0.20605327 4.307445 -0.013013516
-0.16957836 4.32547 -0.0070723318
-0.059749674 4.3402719 -0.0066588223
0.084039316 4.3731689 -0.0038118847
0.12731868 4.3124418 -0.0017250031
0.26974946 4.3438296 -0.0011734851
0.31875136 4.3372416 -0.0039388761
0.44003308 4.3948765 -0.0031725168
0.56869096 4.369266 -0.0039536334
0.69018686 4.3973885 -0.0064523518
0.75719577 4.3590555 -0.0032638193
0.86197436 4.3367014 -0.0018390976
0.94593126 4.3560467 -0.0062792562
1.0660436 4.354918 -0.0036073306
1.1670328 4.3444557 -0.0050807595
1.2294885 4.3373556 -0.0036459342
1.3800409 4.3498025 -0.0029373281
1.6942161 4.3754272 -0.0036144305
1.7010294 4.3693933 -0.0011119545
1.9776928 4.3393521 -0.021001875
2.0351503 4.3440075 -0.036584031
2.1477768 4.3626161 -0.03298977
2.9453921 4.3428531 -0.012049521
3.0300393 4.3640189 -0.064573444
3.1458333 4.3868937 -0.032199733
-5.930192 4.4545965 -0.042627014
-5.8599672 4.4494634 -0.041480131
-5.7650328 4.4581213 -0.017401531
-5.6649914 4.4205709 -0.013501983
-5.5484304 4.4524875 -0.016869294
-5.4431257 4.4660902 -0.0082469108
-5.2711453 4.4030542 -0.014995748
-4.9564271 4.4596934 -0.0051019997
-4.8244338 4.4414625 -0.0041865474
-4.7551265 4.4453125 -0.0045788088
-4.6388369 4.4350009 -0.0033481221
-4.536418 4.4652562 -0.013673901
-4.4508748 4.4446163 -0.0099152839
-4.3311863 4.4526405 -0.0069419192
-4.2567534 4.4463115 -0.011023379
-4.147121 4.4591932 -0.005622529
-4.0221982 4.4424906 -0.0031290352
-3.9438949 4.434648 -0.011466458
-3.8540709 4.4457946 -0.015466658
-3.7426302 4.4358196 -0.016276048
-3.6365862 4.4527731 -0.015708603
-3.5383041 4.4545541 -0.0095573468
-3.4373136 4.4502625 -0.0070920745
-3.3575587 4.4479032 -0.011464584
-3.2515996 4.4505625 -0.016791316
-3.1514773 4.4469538 -0.014095319
-3.0661874 4.434124 -0.014626649
-2.9546757 4.4451685 -0.015247383
-2.8531027 4.4415207 -0.011571113
-2.7577631 4.4571881 -0.010885024
-2.6630294 4.4503961 -0.015722869
-2.53281 4.4487333 -0.014277717
-2.4631021 4.4457083 -0.014973491
-2.3436515 4.4479814 -0.019254984
-2.2393239 4.4691415 -0.016648745
-2.1786778 4.4598799 -0.01101274
-2.0500262 4.4448099 -0.020542085
-1.9441712 4.4335451 -0.016866403
-1.8578888 4.4437943 -0.014930914
-1.7553105 4.4423723 -0.015107878
-1.6456447 4.4608531 -0.0066026631
-1.5537477 4.4449015 -0.0108015
-1.4657195 4.4522653 -0.01244496
-1.3528244 4.4668608 -0.0067495094
-1.2366446 4.4552965 -0.013688365
-1.1513293 4.4502702 -0.0082749324
-1.0490963 4.4537501 -0.010391897
-0.92834365 4.4287729 -0.0083326967
-0.82287836 4.4698153 -0.0069824234
-0.72891724 4.4751639 -0.0080773653
-0.66231203 4.4372263 -0.0096419435
-0.54912394 4.4323053 -0.0084459279
-0.44897723 4.4464693 -0.0095694186
-0.35767138 4.430459 -0.011672699
-0.25359383 4.4367456 -0.0062079029
-0.1506744 4.4555898 -0.011678336
-0.0395803 4.4560833 -0.0045434032
0.070897005 4.4781194 -0.0059019541
0.1448701 4.4693518 -0.0078755766
0.22301604 4.4871011 -0.0062642642
0.4628506 4.4338942 -0.0019110218
0.68540639 4.4362926 -0.0073039718
0.76924598 4.4533014 -0.0043588327
0.83937699 4.4764686 -0.0025102496
0.93645537 4.4343328 -0.0026445352
1.0369518 4.4470024 -0.0032126363
1.2328167 4.491962 -0.0019246042
1.3278108 4.4763322 -0.0049362928
1.6157811 4.4955916 -0.0030254722
1.8178934 4.4796138 -0.0053034499
1.9861301 4.4497828 -0.018123388
2.0298264 4.4535909 -0.030412426
2.1371894 4.4056301 -0.036016464
2.4899192 4.4909835 -0.06379503
2.5560229 4.4791255 -0.079945199
2.6220112 4.4879603 -0.039050709
2.7655952 4.4666805 -0.013493793
2.8627672 4.4699044 -0.010420031
2.9653609 4.4479299 -0.01359438
3.0355299 4.4542894 -0.046537645
3.1329365 4.4205766 -0.039595433
-5.926538 4.5460224 -0.060293987
-5.8563166 4.5484972 -0.044115774
-5.7743678 4.5544109 -0.021132039
-5.6618676 4.5588155 -0.015742494
-5.5476384 4.5830727 -0.017740056
-5.4043026 4.5093727 -0.01900731
-5.3736515 4.5344172 -0.015682898
-5.2772026 4.5749984 -0.0058076172
-5.1876135 4.579989 -0.0011225492
-5.0320978 4.5354567 -0.00071294606
-4.9080281 4.5435333 -0.0060159215
-4.8524237 4.5911636 -0.004044719
-4.757472 4.5345221 -0.0044070035
-4.6254082 4.5619216 -0.0037814656
-4.5452328 4.5546432 -0.0047223633
-4.4481125 4.5488625 -0.011904072
-4.3421898 4.549078 -0.0072975056
-4.2635384 4.5587525 -0.0059054657
-4.1427674 4.5418267 -0.0086486554
-4.0369549 4.5379167 -0.0082578603
-3.9414756 4.5441551 -0.010770491
-3.8568454 4.5484438 -0.013555345
-3.7480721 4.5523586 -0.0095973751
-3.67329 4.5460873 -0.0095933788
-3.5529404 4.5507317 -0.02229712
-3.4286811 4.56003 -0.0092439568
-3.3561394 4.5509925 -0.014180038
-3.2382958 4.5397782 -0.013636174
-3.1558423 4.5558395 -0.011842352
-3.0557365 4.5476789 -0.012701139
-2.9438751 4.5587978 -0.016005618
-2.8389881 4.5497322 -0.011088996
-2.7584867 4.5654488 -0.015254338
-2.6506984 4.5421066 -0.011020975
-2.5381656 4.550458 -0.014575788
-2.4584754 4.5386915 -0.014117762
-2.3432977 4.5462422 -0.014776384
-2.25155 4.5566025 -0.010724018
-2.162627 4.5566711 -0.012815698
-2.0420625 4.5455451 -0.014715484
-1.9564987 4.5702181 -0.0091087334
-1.8392913 4.5477624 -0.014989352
-1.7789778 4.5404196 -0.015859522
-1.6422715 4.5576725 -0.011915351
-1.5450622 4.5603776 -0.0097305998
-1.4382459 4.5520792 -0.01190516
-1.351716 4.5577159 -0.010032866
-1.256572 4.5494323 -0.0096071241
-1.1366693 4.5597172 -0.0093150577
-1.0415878 4.5348015 -0.014666058
-0.95571589 4.5313678 -0.0094186021
-0.86445087 4.5678668 -0.018270874
-0.75947136 4.5549493 -0.0064605433
-0.64763111 4.5340924 -0.0097751217
-0.55403388 4.5377998 -0.008800094
-0.44974032 4.5345216 -0.012961745
-0.36181071 4.5374217 -0.0064573437
-0.27093101 4.5527787 -0.0092184143
-0.12241288 4.535893 -0.0068638949
-0.0033693388 4.5297556 -0.012379613
0.080323644 4.5751753 -0.0042778156
0.11512202 4.5234151 -0.0045792907
0.2513859 4.5634665 -0.0027347039
0.34481382 4.5153122 -0.00013560057
0.4408381 4.5313272 -0.0043619997
0.55352825 4.5545135 -0.0023950275
0.63820982 4.531641 -0.0027727
0.78460562 4.5389128 -0.001824297
0.80862892 4.5647221 -0.0015482232
0.96813375 4.5464354 -0.0038064977
1.072116 4.5247145 -0.0021784119
1.1788086 4.5436544 -0.0022843704
1.2354236 4.5584197 -0.0036203663
1.3656875 4.5803771 -0.00026535988
1.4255222 4.5075407 -0.00029809773
1.9855731 4.5450387 -0.016739314
2.0357234 4.5470624 -0.024538018
2.1547649 4.5391369 -0.01939531
2.4829693 4.5332398 -0.095048025
2.5335886 4.54496 -0.087263279
2.6248758 4.5212874 -0.069062054
2.7648687 4.545836 -0.0089558046
2.8527703 4.5199604 -0.012935632
2.9370613 4.5457916 -0.014242154
3.0670571 4.5963178 -0.0024899542
3.1256697 4.5825772 -0.03060041
-5.9275017 4.6459169 -0.05856527
-5.857358 4.6489592 -0.047264125
-5.7606544 4.6541715 -0.026584275
-5.6661592 4.6432395 -0.016479366
-5.5371943 4.6591139 -0.021954151
-5.4717011 4.6840749 -0.012122884
-5.3253956 4.6743827 -0.026603317
-5.2806773 4.6562257 -0.023968663
-5.1519384 4.6354089 -0.018628478
-5.0736122 4.6028762 -0.021694362
-4.9319544 4.6221552 -0.0063466132
-4.8737192 4.6627121 -0.0040419996
-4.7057791 4.6160288 -0.0038830265
-4.6435804 4.6619859 -0.0023313414
-4.5669146 4.6423674 -0.00069028139
-4.4445744 4.6525707 -0.018088434
-4.3452477 4.6418157 -0.013098499
-4.2530041 4.6324615 -0.0093249669
-4.1598005 4.6316447 -0.010134651
-4.0363216 4.665463 -0.024004333
-3.9737256 4.6407738 -0.0061374521
-3.8481157 4.6255927 -0.012797633
-3.7623925 4.6398983 -0.0062072873
-3.656244 4.656558 -0.011920799
-3.5522556 4.6427102 -0.013208239
-3.4428744 4.6623778 -0.010328338
-3.3506312 4.6200519 -0.013132476
-3.245276 4.6395636 -0.012293381
-3.1350524 4.6523018 -0.010455449
-3.0517385 4.6385589 -0.012332075
-2.9391975 4.6496077 -0.0093106348
-2.8410838 4.643465 -0.0099413432
-2.7567873 4.6545086 -0.010717925
-2.6461208 4.6531253 -0.011688497
-2.5601611 4.6511235 -0.014625016
-2.4573829 4.6530967 -0.011395986
-2.3557885 4.6513205 -0.016256664
-2.2355068 4.664999 -0.0087679513
-2.1577241 4.6484318 -0.016680345
-2.0700991 4.6356807 -0.008896756
-1.9433297 4.6459527 -0.012137999
-1.8583272 4.6477156 -0.011749443
-1.7677431 4.6314807 -0.0066242646
-1.6609148 4.653779 -0.014918728
-1.5245539 4.6524391 -0.012812464
-1.4400994 4.6330881 -0.0070775319
-1.334386 4.6501613 -0.0082975542
-1.2556168 4.6638064 -0.0044709141
-1.1495939 4.6596432 -0.010365129
-1.0521358 4.6698899 -0.03417784
-0.94449151 4.6760736 -0.0078258226
-0.84161657 4.6546483 -0.0086224908
-0.76683748 4.6468749 -0.0039464687
-0.62193763 4.6823416 -0.0031262219
-0.5300374 4.6598115 -0.004611962
-0.44324723 4.6214371 -0.006085935
-0.35309473 4.6551089 -0.0040964731
-0.21445094 4.6422734 -0.01111066
-0.15189198 4.6050463 -0.012211606
-0.035347026 4.628386 -0.004584902
0.023844659 4.6473131 -0.007190791
0.17220555 4.6499867 -0.0061093965
0.44086805 4.6788301 -0.0054493845
0.59072566 4.6756434 -0.0052642673
0.67460251 4.625082 -0.0025869061
0.74463844 4.6282449 -0.0078787953
0.81397331 4.6387987 -0.0050424263
0.96176237 4.6851263 -0.0027141273
1.2088047 4.6264019 -0.002982989
1.9825307 4.6423073 -0.01087016
2.0354979 4.6466007 -0.025840463
2.11588 4.6700578 -0.011847429
2.4916868 4.6301088 -0.085883595
2.5376897 4.64714 -0.085112803
2.6096048 4.637527 -0.077890038
3.1259308 4.6187611 -0.030372493
-5.929739 4.7412634 -0.061421793
-5.8577795 4.7436986 -0.062995501
-5.7735777 4.7488341 -0.033069257
-5.6399131 4.7525363 -0.0032864101
-5.457015 4.7548666 -0.0035775267
-5.331367 4.7179127 -0.053075325
-5.278399 4.7206249 -0.023812789
-4.7209568 4.7490659 -0.0048262924
-4.5851316 4.7118196 -0.0028572083
-4.439415 4.7630014 -0.0067133084
-4.3234248 4.7274427 -0.0054324483
-4.2468443 4.7238007 -0.016331879
-4.1050248 4.7398167 -0.015061922
-4.0603156 4.7286077 -0.013327084
-3.9220138 4.7440705 -0.0086077871
-3.8713233 4.7500973 -0.016643338
-3.7497571 4.7484131 -0.010922571
-3.5461113 4.7509303 -0.0041388571
-3.4418828 4.7526402 -0.0067145252
-3.3398576 4.7457023 -0.0071921963
-3.2619171 4.7351508 -0.013304218
-3.1511209 4.7532578 -0.009039552
-3.0656042 4.7367153 -0.006425499
-2.9349499 4.7464728 -0.0087484736
-2.8474209 4.7542171 -0.0085734846
-2.7574492 4.7388921 -0.0078776823
-2.6494682 4.7612834 -0.0055318442
-2.5365324 4.7604499 -0.01904759
-2.4429836 4.753758 -0.010555656
-2.3409159 4.7453141 -0.017313553
-2.2764955 4.7434597 -0.008728167
-2.1351454 4.7482347 -0.011241643
-2.0403359 4.742846 -0.0056702108
-1.9287981 4.7682195 -0.049866278
-1.8681686 4.7642865 -0.042329069
-1.747789 4.7696705 -0.01289758
-1.6453112 4.7341218 -0.003667593
-1.5476906 4.7674508 -0.022145195
-1.4693395 4.7751002 -0.015821459
-1.3644468 4.7956138 -0.013095437
-1.2375031 4.7812114 -0.018630661
-1.1336975 4.7632399 -0.032620154
-1.0560302 4.7525487 -0.044141687
-0.97863996 4.7578897 -0.034788296
-0.84036154 4.7457457 -0.0079810675
-0.73560256 4.7589841 -0.0059626014
-0.65184408 4.7668085 -0.0069460324
-0.55263984 4.7402234 -0.0061394521
-0.47024587 4.738358 -0.0070898454
-0.32355675 4.7503128 -0.0056992006
-0.25347829 4.7461505 -0.010701299
-0.18536702 4.7294936 -0.0005748868
-0.073031217 4.7600231 -0.0089765368
0.050549477 4.7846622 -0.0022787973
0.14310209 4.7465644 -0.0058209514
0.30542916 4.7109947 -0.0020036027
0.45295203 4.7252903 -0.0031196475
0.5370512 4.7063255 -0.00069962442
1.0057731 4.747664 -0.0025189072
1.972872 4.7242455 -0.011403333
2.035213 4.7480745 -0.026537448
2.4773836 4.7506666 -0.083961315
2.5479155 4.7610836 -0.085194498
2.6091967 4.7412872 -0.085319772
-5.9304576 4.8607912 -0.061563902
-5.8491173 4.8466225 -0.053553946
-5.7776089 4.838213 -0.017377496
-5.6508207 4.8058581 -0.01675503
-4.7882023 4.8219299 -0.0027731359
-4.6014633 4.8609977 -0.0097284392
-4.577929 4.8161173 -0.0045712739
-4.464808 4.824728 -0.003150339
-4.2400994 4.8368058 -0.0096205231
-4.1495962 4.8151383 -0.0093475832
-4.055131 4.8434048 -0.0082686367
-3.9307814 4.8237839 -0.0093665849
-3.8396096 4.849309 -0.0077779442
-3.5524971 4.8803749 -0.019477131
-3.467767 4.8747339 -0.012609014
-3.3654277 4.8605585 -0.010291114
-3.281678 4.872694 -0.014163638
-3.1576405 4.8576035 -0.0068620541
-3.0244975 4.8677368 -0.009705143
-2.9643092 4.8399382 -0.0078885658
-2.838006 4.839561 -0.014346264
-2.7419045 4.8544588 -0.0076547791
-2.664993 4.8601713 -0.01014491
-2.5388935 4.8591914 -0.017726151
-2.4623806 4.872581 -0.023692885
-2.3505971 4.8517427 -0.020335283
-2.2456381 4.8210545 -0.013790311
-2.1460769 4.8484526 -0.025966074
-2.0394702 4.8349085 -0.019274101
-1.9270537 4.84162 -0.034880929
-1.8620924 4.8386188 -0.028150013
-1.7486712 4.8680282 -0.022389514
-1.6629741 4.87148 -0.027814468
-1.5455704 4.8630176 -0.023228414
-1.4589874 4.8594556 -0.022981985
-1.3475505 4.8553891 -0.016339133
-1.2391276 4.8514972 -0.016472215
-1.1558574 4.8361731 -0.016658073
-1.0526098 4.8213396 -0.027479868
-0.97350413 4.838717 -0.011511213
-0.85395265 4.8368053 -0.0023045465
-0.77591234 4.8230209 -0.0065030884
-0.65208852 4.8593988 -0.0068305815
-0.55282253 4.8247662 -0.0057172664
-0.43440214 4.8272281 -0.0022366296
-0.35604322 4.8916883 -3.1724572e-05
-0.24878766 4.8340516 -0.0058975816
-0.15583879 4.8566117 -0.004627347
-0.073987037 4.813324 -0.0029293522
0.031815186 4.8769193 -0.004699152
0.11082115 4.8810744 -0.0057712398
0.24748197 4.8627949 -0.005566325
0.30666155 4.849318 -0.0029033124
0.47324094 4.8409262 -0.0054756077
0.56956345 4.8303475 -0.0022107412
0.70091367 4.807807 -0.0033407509
0.89115214 4.8335242 -0.00043793023
1.9795035 4.8635116 -0.033575065
2.0180674 4.8557277 -0.028867116
2.198082 4.846313 -0.045793772
2.4883623 4.8421865 -0.09153983
2.5502472 4.842834 -0.085391119
-6.0059404 4.9337382 -0.098318174
-5.9266539 4.9524455 -0.052901622
-5.8708334 4.944479 -0.049238767
-5.7599382 4.9333811 -0.015441714
-5.6114235 4.9802041 -0.007219024
-4.4079828 4.9283056 -0.0067487461
-4.2726598 4.9296327 -0.0089590028
-4.1523423 4.9075985 -0.0062016249
-4.0357924 4.9679422 -0.024591997
-3.9186492 4.9193339 -0.012912698
-3.7314811 4.9415383 -0.011590509
-3.6523657 4.9564419 -0.0023169767
-3.5807731 4.9087577 -0.0023626983
-3.4174795 4.9501619 -0.0062148944
-3.2374237 4.9246988 -0.00798262
-3.1567063 4.9484215 -0.008761026
-2.9616404 4.9472232 -0.0072462941
-2.850497 4.9368892 -0.0051210737
-2.7420127 4.9460306 -0.013882036
-2.6492751 4.9439826 -0.013720443
-2.5373759 4.9523406 -0.027404055
-2.4528701 4.9500008 -0.028391266
-2.3704841 4.9534411 -0.030697871
-2.2299664 4.9484391 -0.02515251
-2.1305017 4.9753013 -0.027004195
-2.0480642 4.9708285 -0.033728074
-1.9505187 4.9543872 -0.026161645
-1.8491763 4.950171 -0.017786607
-1.7443434 4.9412303 -0.035265278
-1.6562552 4.9542165 -0.036145963
-1.5458924 4.9440293 -0.027396001
-1.4530666 4.9468398 -0.034338862
-1.3565818 4.9613533 -0.021915408
-1.2614062 4.9608169 -0.036133327
-1.1699711 4.9626079 -0.042333905
-1.0364581 4.9243922 -0.0038769674
-0.83189136 4.9708385 -0.0043365657
-0.7819488 4.9019904 -0.0063742101
-0.65350938 4.9969368 -0.0042784214
-0.348441 4.912046 -0.00012177229
-0.10377505 4.944469 -0.0029921532
-0.077726878 4.9229875 -0.0030092399
0.012515828 4.9476881 -0.0047024414
0.15221304 4.9146004 -0.0069100708
0.21436667 4.9283037 -0.0019994527
1.8967435 4.9170427 -0.0034404695
1.9840647 4.9498663 -0.017767625
2.0210621 4.9333549 -0.020952072
2.4819 4.9342051 -0.084808968
2.5770934 4.9189501 -0.082758345
2.6194243 4.9283986 -0.086438902
-5.9298577 5.0533061 -0.064636961
-5.8653865 5.0442262 -0.045068573
-5.7629418 5.0760088 -0.005924026
-5.6621146 5.0745587 -0.0080743628
-5.5753622 5.0445828 -0.0063494318
-4.4189558 5.0828609 -0.0033337176
-3.7486343 5.0702848 -0.0086331367
-3.691287 5.0273995 -0.006622646
-3.5626137 5.0908027 -0.013340588
-3.2387335 5.087831 -0.0035160109
-3.0708663 5.0240793 -0.0066214157
-2.9620187 5.044888 -0.0047176704
-2.8345091 5.0364079 -0.0067923837
-2.7514088 5.0355701 -0.0079758801
-2.6601441 5.0541034 -0.015833251
-2.5459173 5.0398407 -0.024050066
-2.43578 5.0498972 -0.040689964
-2.3516972 5.0547128 -0.038073927
-2.2442374 5.0659804 -0.041040663
-2.1504118 5.0576382 -0.041609176
-2.0514874 5.0508394 -0.037257183
-1.9637412 5.0399723 -0.020723393
-1.8616163 5.0444865 -0.0066963467
-1.7314605 5.0404739 -0.051964771
-1.6499364 5.0416389 -0.051694646
-1.542935 5.0578866 -0.051812414
-1.4611759 5.0430856 -0.054768126
-1.3618785 5.0449567 -0.038830243
-1.2710459 5.0224562 -0.03743802
-1.1046687 5.0587349 -0.02112441
-1.0697036 5.0687103 -0.011550725
-0.85920835 5.0465641 -0.0021861841
-0.75289607 5.0085545 -0.0026606172
-0.34138393 5.0349483 -4.5761466e-05
-0.19121906 5.0010443 -0.0017005205
0.021314949 5.017539 -0.0023766607
1.9887266 5.0171227 -0.03197078
2.019526 5.04424 -0.019501785
2.472693 5.0965276 -0.094267726
2.5399666 5.0952845 -0.096352309
2.6105332 5.0568638 -0.097846285
-6.0075593 5.1756477 -0.046372529
-5.9332714 5.1491179 -0.06580092
-5.8669891 5.1473346 -0.053499114
-5.7750168 5.1320844 -0.0030217208
-5.6898355 5.1458421 -0.0018099695
-5.4703298 5.1962962 -0.0091359019
-3.9568474 5.1578298 -0.0057635009
-3.7482789 5.1906223 -0.0068208785
-3.539959 5.1127386 -0.00027476251
-3.4603407 5.1363921 -0.0050233603
-3.3603101 5.1951942 -0.0068796631
-3.0761094 5.1955914 -0.0037240684
-2.9146469 5.1218486 -0.0062804869
-2.8343449 5.1129751 -0.0025819114
-2.7444696 5.1517544 -0.0056990637
-2.6432862 5.1241145 -0.0049899113
-2.5349045 5.1462283 -0.014305334
-2.4334626 5.15346 -0.037090816
-2.3493991 5.143075 -0.04076248
-2.2551484 5.1442351 -0.042723324
-2.1578138 5.1418109 -0.046674524
-2.0501835 5.1511846 -0.03265116
-1.9555769 5.1611853 -0.028383233
-1.8529428 5.1600661 -0.022199618
-1.7228838 5.1191101 -0.050566997
-1.6485009 5.1455684 -0.031592246
-1.5478668 5.1336517 -0.044463556
-1.4640629 5.1378517 -0.023746939
-1.3827063 5.1227064 -0.030326881
-1.0559275 5.1813574 -0.042796504
-0.96845573 5.1724377 -0.015106171
-0.87679839 5.1704879 -0.0010621697
1.7768711 5.1793671 -0.017672
1.81582 5.1478791 -0.005050452
2.3932199 5.1894011 -0.076561749
2.4662607 5.1691413 -0.084049873
2.5320277 5.1516409 -0.079026736
2.6074519 5.1104074 -0.097882934
2.9817073 5.1450057 -0.097377338
-5.9233103 5.2476015 -0.0680926
-5.8721948 5.256577 -0.055681113
-5.7741041 5.2475576 -0.0068485998
-5.657958 5.2503414 -0.0020698681
-5.5171051 5.204154 -0.047636576
-3.9207609 5.2805252 -0.0052523203
-3.6099117 5.2345438 -0.001495339
-3.3416433 5.2108822 -0.0032794662
-3.2314279 5.228693 -0.0022369449
-3.0675917 5.2510848 -0.0017593168
-2.8268685 5.2020831 -0.0064982548
-2.7400184 5.2399788 -0.0026857257
-2.627368 5.2686362 -0.010075483
-2.5459211 5.2605252 -0.024057006
-2.4326198 5.2501884 -0.04829162
-2.3531568 5.2519813 -0.039967425
-2.2459273 5.2435842 -0.041485973
-2.1429334 5.2564836 -0.04562863
-2.0544903 5.2512035 -0.039370466
-1.9531531 5.2480021 -0.035514068
-1.8544948 5.2464924 -0.034346413
-1.7462127 5.2612681 -0.026827667
-1.6533961 5.2512283 -0.03645071
-1.5517217 5.2542081 -0.026471093
-1.4730264 5.2407308 -0.025230633
-1.1249318 5.2643166 -0.019185698
-1.0485027 5.2399044 -0.037134901
-0.97426534 5.2576747 -0.012413044
-0.88507658 5.2793097 -0.022059748
-0.67860055 5.2713261 -0.0062875301
1.7648209 5.2191806 -0.027986057
1.8063015 5.225162 -0.012370546
2.0491724 5.2373157 -0.082358859
2.1085041 5.2793975 -0.066242777
2.3419049 5.2593384 -0.048377313
2.4604058 5.2357168 -0.07296858
2.506907 5.2479696 -0.080876447
-5.9220786 5.3465877 -0.059962951
-5.8618426 5.347858 -0.059189707
-5.7870636 5.3432493 -0.057824899
-5.4270654 5.3604827 -0.052326504
-5.3780675 5.3666992 -0.066567823
-3.9919477 5.3929291 -0.0059801117
-3.819011 5.3524942 -0.0023922902
-3.7155216 5.3863392 -0.00043135881
-3.330976 5.3120351 -0.0003913343
-2.9792595 5.3115196 -0.001144655
-2.6289067 5.3495545 -0.024502674
-2.5437791 5.346559 -0.038584229
-2.4478014 5.3485007 -0.038964402
-2.3556521 5.342834 -0.037807446
-2.2428877 5.3440361 -0.044393703
-2.1506305 5.3381319 -0.035505399
-2.0620475 5.3245311 -0.045476854
-1.9456822 5.3299851 -0.049513482
-1.8467158 5.3517418 -0.052696034
-1.7605921 5.3489509 -0.038378239
-1.6523709 5.3446126 -0.030888634
-1.5489088 5.3468556 -0.014198718
-1.4778683 5.344708 -0.01757139
-1.3274913 5.3525648 -0.0099035688
-1.2492214 5.3315659 -0.0067073312
-1.15249 5.3276296 -0.0095476033
-1.0456934 5.3338552 -0.0047165994
-0.97593975 5.342145 -0.0048668412
-0.85407531 5.3647637 -0.012563506
-0.75455797 5.3834724 -0.015106471
-0.65352565 5.3716145 -0.013333785
-0.59196639 5.3156176 -0.0050296634
1.8641309 5.3549943 -0.0010141581
1.9814081 5.3841715 -0.086945169
2.0532157 5.3351588 -0.057155471
2.1093245 5.3224001 -0.070736237
2.289988 5.3471336 -0.0042027533
2.3423777 5.3732233 -0.052728061
2.4601979 5.3284993 -0.0770685
2.5106728 5.3409472 -0.079431817
-5.9340568 5.4666967 -0.057975382
-5.8685856 5.4487386 -0.053925425
-5.7996726 5.4842434 -0.0025421679
-5.4331393 5.4414992 -0.038161192
-5.3799391 5.4204164 -0.030504366
-3.856607 5.4022923 -0.0072990954
-2.6168754 5.4258637 -0.029497335
-2.4343107 5.4017229 -0.04361894
-2.3551989 5.4033418 -0.0023281574
-2.2075455 5.4507313 -0.035080191
-2.1411295 5.419302 -0.0096716871
-1.9029943 5.4137273 -0.027168401
-1.8590444 5.4213104 -0.047374941
-1.7347708 5.4256406 -0.058897059
-1.6754185 5.4289966 -0.065691553
-1.5420109 5.4190722 -0.027270021
-1.457665 5.4340901 -0.0062096869
-1.1146095 5.4110003 -0.013198949
-0.92917651 5.477036 -0.025077844
-0.83723241 5.4587598 -0.046676777
-0.75432068 5.4600263 -0.050129343
-0.66676164 5.4583335 -0.047711127
-0.56263053 5.4704924 -0.0035782531
1.8761004 5.4657941 -0.011069488
1.9554994 5.4431648 -0.077086255
2.0300162 5.4353428 -0.043192938
2.2482653 5.4993825 -0.0038207024
2.3733096 5.4536238 -0.021979205
-6.0001783 5.5503464 -0.07301113
-5.936204 5.5501804 -0.049371332
-5.8706517 5.5559621 -0.048301823
-5.7459149 5.5850906 -0.057287153
-5.6688094 5.567317 -0.033160061
-4.4233112 5.5196352 -0.0039445087
-3.8100808 5.512661 -0.0060798489
-3.6737475 5.5213976 -0.002982311
-3.1828578 5.5189533 -0.0050358251
-2.7035828 5.509109 -0.001501739
-2.6212494 5.5428352 -0.021178549
-1.5595512 5.5682569 -0.051674496
-1.4302207 5.5937901 -0.0013726056
-1.3558017 5.5267072 -0.0084887221
-0.91880465 5.5351467 -0.017810117
-0.84417492 5.5160036 -0.031812344
-0.75090212 5.5244884 -0.04625047
-0.67931473 5.5365019 -0.023232291
-0.59009373 5.5048738 -0.042946324
1.7934729 5.5292754 -0.022259137
1.8391544 5.5405455 -0.021999467
1.9020454 5.507019 -0.058731839
2.156786 5.5670619 -0.0073284851
2.2501454 5.5039954 -0.0069384277
2.3270125 5.5551348 -0.011544172
2.4282284 5.5816231 -0.018376
-6.0048828 5.6369553 -0.063624322
-5.9275017 5.6472054 -0.061789677
-5.869524 5.6412244 -0.052481201
-5.7418642 5.6439667 -0.054310139
-5.676405 5.656714 -0.040976867
-2.6166031 5.6161919 -0.022775307
-2.5968804 5.6470466 -0.038642198
-1.0481516 5.62114 -0.0096866488
-0.90882915 5.6443281 -0.0073262453
-0.70837229 5.6203685 -0.040267672
-0.67148352 5.6326709 -0.027412243
2.1528568 5.624167 -0.0067713577
2.2258902 5.6309204 -0.013120752
2.3854945 5.6404457 -0.066101536
2.4177511 5.6548061 -0.05581139
-5.9272094 5.7408252 -0.059081055
-5.8802152 5.739325 -0.052622672
-5.7356939 5.7375455 -0.05553703
-5.6799712 5.7521782 -0.040080532
-2.621237 5.7652478 -0.019643376
-0.96152496 5.7006283 -0.030991912
2.4486549 5.7541075 -0.070928574
2.5094087 5.7894192 -0.0061787665
-5.925282 5.823072 -0.048969697
-5.8991089 5.8037176 -0.039630622
-5.7219119 5.8631582 -0.055027269
-5.6842608 5.8511443 -0.047773056
-2.6030843 5.8549027 -0.059998814
-2.3846934 5.816134 -0.032056376
-1.1460865 5.8512506 -0.005407244
